ply
format ascii 1.0
element vertex 1065
property float x
property float y
property float z
property uchar red
property uchar green
property uchar blue
end_header
-1439.3166666666666 -674.31 2366.0 255 255 255
-1475.375 -695.9699999999999 2442.0 255 255 255
-1465.2 -695.9699999999999 2442.0 255 255 255
-1455.025 -695.9699999999999 2442.0 255 255 255
-1444.85 -695.9699999999999 2442.0 255 255 255
-1434.675 -695.9699999999999 2442.0 255 255 255
-1447.8333333333335 -707.3699999999999 2482.0 255 255 255
-1461.2375000000002 -719.055 2523.0 255 255 255
-1474.8749999999998 -731.025 2565.0 255 255 255
-1489.3041666666666 -743.5649999999999 2609.0 255 255 255
-1503.9333333333334 -756.39 2654.0 255 255 255
-1492.875 -756.39 2654.0 255 255 255
-1481.8166666666666 -756.39 2654.0 255 255 255
-1470.7583333333334 -756.39 2654.0 255 255 255
-1459.7 -756.39 2654.0 255 255 255
-1474.2958333333331 -769.785 2701.0 255 255 255
-1489.5833333333333 -783.7499999999999 2750.0 255 255 255
-1505.0 -797.9999999999999 2800.0 255 255 255
-1493.3333333333333 -797.9999999999999 2800.0 255 255 255
-1509.7125 -813.1049999999999 2853.0 255 255 255
-1497.825 -813.1049999999999 2853.0 255 255 255
-1485.9375 -813.1049999999999 2853.0 255 255 255
-1446.6666666666667 -797.9999999999999 2800.0 255 255 255
-1462.1625 -813.1049999999999 2853.0 255 255 255
-1450.2749999999999 -813.1049999999999 2853.0 255 255 255
-1438.3875 -813.1049999999999 2853.0 255 255 255
-1482.0 -844.7399999999999 2964.0 255 255 255
-1498.4083333333333 -861.27 3022.0 255 255 255
-1485.8166666666666 -861.27 3022.0 255 255 255
-1473.225 -861.27 3022.0 255 255 255
-1460.6333333333334 -861.27 3022.0 255 255 255
-1448.0416666666667 -861.27 3022.0 255 255 255
-1435.45 -861.27 3022.0 255 255 255
-1451.5791666666667 -878.655 3083.0 255 255 255
-1468.6000000000001 -896.8949999999999 3147.0 255 255 255
-1486.0125 -915.7049999999999 3213.0 255 255 255
-1537.25 -955.8899999999999 3354.0 255 255 255
-1523.275 -955.8899999999999 3354.0 255 255 255
-1579.05 -1000.0649999999999 3509.0 255 255 255
-1600.9875000000002 -1023.435 3591.0 255 255 255
-1586.0249999999999 -1023.435 3591.0 255 255 255
-1571.0625 -1023.435 3591.0 255 255 255
-1556.1000000000001 -1023.435 3591.0 255 255 255
-1505.9458333333332 -1000.0649999999999 3509.0 255 255 255
-1526.175 -1023.435 3591.0 255 255 255
-1511.2125 -1023.435 3591.0 255 255 255
-1532.5 -1048.23 3678.0 255 255 255
-1554.7124999999999 -1074.165 3769.0 255 255 255
-1445.7 -614.8800000000001 2196.0 255 255 255
-1436.55 -614.8800000000001 2196.0 255 255 255
-1427.4 -614.8800000000001 2196.0 255 255 255
-1418.25 -614.8800000000001 2196.0 255 255 255
-1409.1000000000001 -614.8800000000001 2196.0 255 255 255
-1420.35 -623.84 2228.0 255 255 255
-1411.0666666666666 -623.84 2228.0 255 255 255
-1422.5458333333333 -633.08 2261.0 255 255 255
-1434.375 -642.6 2295.0 255 255 255
-1424.8125 -642.6 2295.0 255 255 255
-1436.8333333333335 -652.4000000000001 2330.0 255 255 255
-1427.125 -652.4000000000001 2330.0 255 255 255
-1439.3166666666666 -662.48 2366.0 255 255 255
-1475.375 -683.7600000000001 2442.0 255 255 255
-1465.2 -683.7600000000001 2442.0 255 255 255
-1455.025 -683.7600000000001 2442.0 255 255 255
-1444.85 -683.7600000000001 2442.0 255 255 255
-1434.675 -683.7600000000001 2442.0 255 255 255
-1424.5 -683.7600000000001 2442.0 255 255 255
-1437.4916666666668 -694.96 2482.0 255 255 255
-1450.725 -706.44 2523.0 255 255 255
-1489.3041666666666 -730.5200000000001 2609.0 255 255 255
-1503.9333333333334 -743.1200000000001 2654.0 255 255 255
-1492.875 -743.1200000000001 2654.0 255 255 255
-1481.8166666666666 -743.1200000000001 2654.0 255 255 255
-1470.7583333333334 -743.1200000000001 2654.0 255 255 255
-1459.7 -743.1200000000001 2654.0 255 255 255
-1474.2958333333331 -756.2800000000001 2701.0 255 255 255
-1489.5833333333333 -770.0000000000001 2750.0 255 255 255
-1505.0 -784.0000000000001 2800.0 255 255 255
-1493.3333333333333 -784.0000000000001 2800.0 255 255 255
-1481.6666666666667 -784.0000000000001 2800.0 255 255 255
-1497.825 -798.84 2853.0 255 255 255
-1458.3333333333335 -784.0000000000001 2800.0 255 255 255
-1446.6666666666667 -784.0000000000001 2800.0 255 255 255
-1434.9999999999998 -784.0000000000001 2800.0 255 255 255
-1450.2749999999999 -798.84 2853.0 255 255 255
-1438.3875 -798.84 2853.0 255 255 255
-1482.0 -829.9200000000001 2964.0 255 255 255
-1498.4083333333333 -846.1600000000001 3022.0 255 255 255
-1485.8166666666666 -846.1600000000001 3022.0 255 255 255
-1473.225 -846.1600000000001 3022.0 255 255 255
-1460.6333333333334 -846.1600000000001 3022.0 255 255 255
-1448.0416666666667 -846.1600000000001 3022.0 255 255 255
-1435.45 -846.1600000000001 3022.0 255 255 255
-1451.5791666666667 -863.2400000000001 3083.0 255 255 255
-1438.7333333333333 -863.2400000000001 3083.0 255 255 255
-1486.0125 -899.6400000000001 3213.0 255 255 255
-1504.25 -918.96 3282.0 255 255 255
-1523.275 -939.1200000000001 3354.0 255 255 255
-1509.3 -939.1200000000001 3354.0 255 255 255
-1564.4291666666668 -982.5200000000001 3509.0 255 255 255
-1549.8083333333334 -982.5200000000001 3509.0 255 255 255
-1571.0625 -1005.4800000000001 3591.0 255 255 255
-1556.1000000000001 -1005.4800000000001 3591.0 255 255 255
-1547.825 -1029.8400000000001 3678.0 255 255 255
-1532.5 -1029.8400000000001 3678.0 255 255 255
-1554.7124999999999 -1055.3200000000002 3769.0 255 255 255
-1618.6333333333332 -1109.92 3964.0 255 255 255
-1445.7 -603.9000000000001 2196.0 255 255 255
-1436.55 -603.9000000000001 2196.0 255 255 255
-1427.4 -603.9000000000001 2196.0 255 255 255
-1418.25 -603.9000000000001 2196.0 255 255 255
-1409.1000000000001 -603.9000000000001 2196.0 255 255 255
-1399.9499999999998 -603.9000000000001 2196.0 255 255 255
-1411.0666666666666 -612.7 2228.0 255 255 255
-1422.5458333333333 -621.7750000000001 2261.0 255 255 255
-1413.125 -621.7750000000001 2261.0 255 255 255
-1424.8125 -631.125 2295.0 255 255 255
-1415.25 -631.125 2295.0 255 255 255
-1427.125 -640.75 2330.0 255 255 255
-1439.3166666666666 -650.6500000000001 2366.0 255 255 255
-1451.8125 -660.825 2403.0 255 255 255
-1465.2 -671.5500000000001 2442.0 255 255 255
-1455.025 -671.5500000000001 2442.0 255 255 255
-1444.85 -671.5500000000001 2442.0 255 255 255
-1434.675 -671.5500000000001 2442.0 255 255 255
-1424.5 -671.5500000000001 2442.0 255 255 255
-1437.4916666666668 -682.5500000000001 2482.0 255 255 255
-1427.1499999999999 -682.5500000000001 2482.0 255 255 255
-1464.1875 -705.3750000000001 2565.0 255 255 255
-1478.4333333333334 -717.475 2609.0 255 255 255
-1492.875 -729.85 2654.0 255 255 255
-1481.8166666666666 -729.85 2654.0 255 255 255
-1470.7583333333334 -729.85 2654.0 255 255 255
-1459.7 -729.85 2654.0 255 255 255
-1448.6416666666664 -729.85 2654.0 255 255 255
-1489.5833333333333 -756.2500000000001 2750.0 255 255 255
-1478.125 -756.2500000000001 2750.0 255 255 255
-1493.3333333333333 -770.0000000000001 2800.0 255 255 255
-1481.6666666666667 -770.0000000000001 2800.0 255 255 255
-1470.0 -770.0000000000001 2800.0 255 255 255
-1485.9375 -784.575 2853.0 255 255 255
-1474.0500000000002 -784.575 2853.0 255 255 255
-1462.1625 -784.575 2853.0 255 255 255
-1450.2749999999999 -784.575 2853.0 255 255 255
-1465.6125 -799.4250000000001 2907.0 255 255 255
-1482.0 -815.1 2964.0 255 255 255
-1498.4083333333333 -831.0500000000001 3022.0 255 255 255
-1485.8166666666666 -831.0500000000001 3022.0 255 255 255
-1473.225 -831.0500000000001 3022.0 255 255 255
-1460.6333333333334 -831.0500000000001 3022.0 255 255 255
-1448.0416666666667 -831.0500000000001 3022.0 255 255 255
-1435.45 -831.0500000000001 3022.0 255 255 255
-1422.8583333333333 -831.0500000000001 3022.0 255 255 255
-1438.7333333333333 -847.825 3083.0 255 255 255
-1486.0125 -883.575 3213.0 255 255 255
-1504.25 -902.5500000000001 3282.0 255 255 255
-1490.575 -902.5500000000001 3282.0 255 255 255
-1509.3 -922.35 3354.0 255 255 255
-1529.2083333333335 -943.2500000000001 3430.0 255 255 255
-1549.8083333333334 -964.975 3509.0 255 255 255
-1571.0625 -987.5250000000001 3591.0 255 255 255
-1586.1208333333334 -1036.4750000000001 3769.0 255 255 255
-1570.4166666666667 -1036.4750000000001 3769.0 255 255 255
-1593.8999999999999 -1062.6000000000001 3864.0 255 255 255
-1618.6333333333332 -1090.1000000000001 3964.0 255 255 255
-1445.7 -592.9200000000001 2196.0 255 255 255
-1436.55 -592.9200000000001 2196.0 255 255 255
-1427.4 -592.9200000000001 2196.0 255 255 255
-1418.25 -592.9200000000001 2196.0 255 255 255
-1409.1000000000001 -592.9200000000001 2196.0 255 255 255
-1399.9499999999998 -592.9200000000001 2196.0 255 255 255
-1390.8 -592.9200000000001 2196.0 255 255 255
-1401.7833333333333 -601.5600000000001 2228.0 255 255 255
-1413.125 -610.47 2261.0 255 255 255
-1403.7041666666667 -610.47 2261.0 255 255 255
-1394.2833333333333 -610.47 2261.0 255 255 255
-1405.6875 -619.6500000000001 2295.0 255 255 255
-1396.1249999999998 -619.6500000000001 2295.0 255 255 255
-1429.4583333333333 -638.82 2366.0 255 255 255
-1441.8 -648.8100000000001 2403.0 255 255 255
-1431.7875 -648.8100000000001 2403.0 255 255 255
-1444.85 -659.34 2442.0 255 255 255
-1434.675 -659.34 2442.0 255 255 255
-1424.5 -659.34 2442.0 255 255 255
-1437.4916666666668 -670.1400000000001 2482.0 255 255 255
-1427.1499999999999 -670.1400000000001 2482.0 255 255 255
-1464.1875 -692.5500000000001 2565.0 255 255 255
-1478.4333333333334 -704.4300000000001 2609.0 255 255 255
-1467.5625 -704.4300000000001 2609.0 255 255 255
-1481.8166666666666 -716.58 2654.0 255 255 255
-1470.7583333333334 -716.58 2654.0 255 255 255
-1459.7 -716.58 2654.0 255 255 255
-1448.6416666666664 -716.58 2654.0 255 255 255
-1463.0416666666665 -729.2700000000001 2701.0 255 255 255
-1478.125 -742.5 2750.0 255 255 255
-1493.3333333333333 -756.0 2800.0 255 255 255
-1481.6666666666667 -756.0 2800.0 255 255 255
-1470.0 -756.0 2800.0 255 255 255
-1485.9375 -770.3100000000001 2853.0 255 255 255
-1474.0500000000002 -770.3100000000001 2853.0 255 255 255
-1462.1625 -770.3100000000001 2853.0 255 255 255
-1477.725 -784.8900000000001 2907.0 255 255 255
-1494.35 -800.2800000000001 2964.0 255 255 255
-1511.0 -815.94 3022.0 255 255 255
-1498.4083333333333 -815.94 3022.0 255 255 255
-1485.8166666666666 -815.94 3022.0 255 255 255
-1473.225 -815.94 3022.0 255 255 255
-1460.6333333333334 -815.94 3022.0 255 255 255
-1448.0416666666667 -815.94 3022.0 255 255 255
-1435.45 -815.94 3022.0 255 255 255
-1451.5791666666667 -832.4100000000001 3083.0 255 255 255
-1468.6000000000001 -849.69 3147.0 255 255 255
-1486.0125 -867.5100000000001 3213.0 255 255 255
-1504.25 -886.1400000000001 3282.0 255 255 255
-1490.575 -886.1400000000001 3282.0 255 255 255
-1476.9 -886.1400000000001 3282.0 255 255 255
-1495.325 -905.58 3354.0 255 255 255
-1514.9166666666665 -926.1 3430.0 255 255 255
-1535.1875 -947.4300000000001 3509.0 255 255 255
-1610.0 -1043.28 3864.0 255 255 255
-1593.8999999999999 -1043.28 3864.0 255 255 255
-1618.6333333333332 -1070.28 3964.0 255 255 255
-1445.7 -581.94 2196.0 255 255 255
-1436.55 -581.94 2196.0 255 255 255
-1427.4 -581.94 2196.0 255 255 255
-1418.25 -581.94 2196.0 255 255 255
-1409.1000000000001 -581.94 2196.0 255 255 255
-1399.9499999999998 -581.94 2196.0 255 255 255
-1390.8 -581.94 2196.0 255 255 255
-1401.7833333333333 -590.4200000000001 2228.0 255 255 255
-1413.125 -599.1650000000001 2261.0 255 255 255
-1403.7041666666667 -599.1650000000001 2261.0 255 255 255
-1394.2833333333333 -599.1650000000001 2261.0 255 255 255
-1384.8625000000002 -599.1650000000001 2261.0 255 255 255
-1396.1249999999998 -608.1750000000001 2295.0 255 255 255
-1407.7083333333333 -617.45 2330.0 255 255 255
-1419.6 -626.99 2366.0 255 255 255
-1431.7875 -636.7950000000001 2403.0 255 255 255
-1444.85 -647.13 2442.0 255 255 255
-1434.675 -647.13 2442.0 255 255 255
-1424.5 -647.13 2442.0 255 255 255
-1437.4916666666668 -657.73 2482.0 255 255 255
-1450.725 -668.595 2523.0 255 255 255
-1464.1875 -679.725 2565.0 255 255 255
-1478.4333333333334 -691.385 2609.0 255 255 255
-1467.5625 -691.385 2609.0 255 255 255
-1481.8166666666666 -703.3100000000001 2654.0 255 255 255
-1470.7583333333334 -703.3100000000001 2654.0 255 255 255
-1459.7 -703.3100000000001 2654.0 255 255 255
-1474.2958333333331 -715.765 2701.0 255 255 255
-1463.0416666666665 -715.765 2701.0 255 255 255
-1478.125 -728.75 2750.0 255 255 255
-1466.6666666666667 -728.75 2750.0 255 255 255
-1481.6666666666667 -742.0 2800.0 255 255 255
-1470.0 -742.0 2800.0 255 255 255
-1458.3333333333335 -742.0 2800.0 255 255 255
-1446.6666666666667 -742.0 2800.0 255 255 255
-1462.1625 -756.0450000000001 2853.0 255 255 255
-1477.725 -770.355 2907.0 255 255 255
-1494.35 -785.46 2964.0 255 255 255
-1511.0 -800.83 3022.0 255 255 255
-1498.4083333333333 -800.83 3022.0 255 255 255
-1515.8083333333332 -816.995 3083.0 255 255 255
-1473.225 -800.83 3022.0 255 255 255
-1490.1166666666668 -816.995 3083.0 255 255 255
-1477.2708333333335 -816.995 3083.0 255 255 255
-1464.425 -816.995 3083.0 255 255 255
-1451.5791666666667 -816.995 3083.0 255 255 255
-1468.6000000000001 -833.955 3147.0 255 255 255
-1486.0125 -851.445 3213.0 255 255 255
-1504.25 -869.73 3282.0 255 255 255
-1490.575 -869.73 3282.0 255 255 255
-1476.9 -869.73 3282.0 255 255 255
-1495.325 -888.8100000000001 3354.0 255 255 255
-1514.9166666666665 -908.95 3430.0 255 255 255
-1535.1875 -929.885 3509.0 255 255 255
-1626.1 -1023.96 3864.0 255 255 255
-1610.0 -1023.96 3864.0 255 255 255
-1593.8999999999999 -1023.96 3864.0 255 255 255
-1618.6333333333332 -1050.46 3964.0 255 255 255
-1602.1166666666668 -1050.46 3964.0 255 255 255
-1425.2916666666667 -562.9 2165.0 255 255 255
-1416.2708333333333 -562.9 2165.0 255 255 255
-1407.25 -562.9 2165.0 255 255 255
-1418.25 -570.96 2196.0 255 255 255
-1409.1000000000001 -570.96 2196.0 255 255 255
-1399.9499999999998 -570.96 2196.0 255 255 255
-1411.0666666666666 -579.28 2228.0 255 255 255
-1422.5458333333333 -587.86 2261.0 255 255 255
-1413.125 -587.86 2261.0 255 255 255
-1403.7041666666667 -587.86 2261.0 255 255 255
-1394.2833333333333 -587.86 2261.0 255 255 255
-1405.6875 -596.7 2295.0 255 255 255
-1396.1249999999998 -596.7 2295.0 255 255 255
-1407.7083333333333 -605.8000000000001 2330.0 255 255 255
-1398.0 -605.8000000000001 2330.0 255 255 255
-1409.7416666666666 -615.16 2366.0 255 255 255
-1421.775 -624.78 2403.0 255 255 255
-1434.675 -634.9200000000001 2442.0 255 255 255
-1424.5 -634.9200000000001 2442.0 255 255 255
-1437.4916666666668 -645.32 2482.0 255 255 255
-1450.725 -655.98 2523.0 255 255 255
-1489.3041666666666 -678.34 2609.0 255 255 255
-1478.4333333333334 -678.34 2609.0 255 255 255
-1492.875 -690.0400000000001 2654.0 255 255 255
-1481.8166666666666 -690.0400000000001 2654.0 255 255 255
-1470.7583333333334 -690.0400000000001 2654.0 255 255 255
-1485.5500000000002 -702.26 2701.0 255 255 255
-1474.2958333333331 -702.26 2701.0 255 255 255
-1489.5833333333333 -715.0 2750.0 255 255 255
-1478.125 -715.0 2750.0 255 255 255
-1466.6666666666667 -715.0 2750.0 255 255 255
-1455.2083333333333 -715.0 2750.0 255 255 255
-1443.75 -715.0 2750.0 255 255 255
-1432.2916666666667 -715.0 2750.0 255 255 255
-1446.6666666666667 -728.0 2800.0 255 255 255
-1434.9999999999998 -728.0 2800.0 255 255 255
-1450.2749999999999 -741.78 2853.0 255 255 255
-1494.35 -770.64 2964.0 255 255 255
-1511.0 -785.72 3022.0 255 255 255
-1528.6541666666667 -801.58 3083.0 255 255 255
-1515.8083333333332 -801.58 3083.0 255 255 255
-1502.9624999999999 -801.58 3083.0 255 255 255
-1490.1166666666668 -801.58 3083.0 255 255 255
-1477.2708333333335 -801.58 3083.0 255 255 255
-1464.425 -801.58 3083.0 255 255 255
-1451.5791666666667 -801.58 3083.0 255 255 255
-1468.6000000000001 -818.22 3147.0 255 255 255
-1486.0125 -835.38 3213.0 255 255 255
-1504.25 -853.32 3282.0 255 255 255
-1490.575 -853.32 3282.0 255 255 255
-1476.9 -853.32 3282.0 255 255 255
-1495.325 -872.0400000000001 3354.0 255 255 255
-1481.35 -872.0400000000001 3354.0 255 255 255
-1500.625 -891.8000000000001 3430.0 255 255 255
-1520.5666666666666 -912.34 3509.0 255 255 255
-1541.1374999999998 -933.6600000000001 3591.0 255 255 255
-1601.825 -979.94 3769.0 255 255 255
-1626.1 -1004.64 3864.0 255 255 255
-1610.0 -1004.64 3864.0 255 255 255
-1593.8999999999999 -1004.64 3864.0 255 255 255
-1618.6333333333332 -1030.64 3964.0 255 255 255
-1602.1166666666668 -1030.64 3964.0 255 255 255
-1585.6000000000001 -1030.64 3964.0 255 255 255
-1569.0833333333333 -1030.64 3964.0 255 255 255
-1445.7 -559.98 2196.0 255 255 255
-1416.2708333333333 -552.075 2165.0 255 255 255
-1427.4 -559.98 2196.0 255 255 255
-1418.25 -559.98 2196.0 255 255 255
-1409.1000000000001 -559.98 2196.0 255 255 255
-1420.35 -568.14 2228.0 255 255 255
-1431.9666666666667 -576.5550000000001 2261.0 255 255 255
-1422.5458333333333 -576.5550000000001 2261.0 255 255 255
-1434.375 -585.225 2295.0 255 255 255
-1424.8125 -585.225 2295.0 255 255 255
-1415.25 -585.225 2295.0 255 255 255
-1405.6875 -585.225 2295.0 255 255 255
-1396.1249999999998 -585.225 2295.0 255 255 255
-1407.7083333333333 -594.15 2330.0 255 255 255
-1398.0 -594.15 2330.0 255 255 255
-1409.7416666666666 -603.33 2366.0 255 255 255
-1421.775 -612.765 2403.0 255 255 255
-1434.675 -622.71 2442.0 255 255 255
-1424.5 -622.71 2442.0 255 255 255
-1437.4916666666668 -632.91 2482.0 255 255 255
-1450.725 -643.365 2523.0 255 255 255
-1489.3041666666666 -665.295 2609.0 255 255 255
-1478.4333333333334 -665.295 2609.0 255 255 255
-1492.875 -676.77 2654.0 255 255 255
-1481.8166666666666 -676.77 2654.0 255 255 255
-1496.8041666666668 -688.755 2701.0 255 255 255
-1512.5000000000002 -701.25 2750.0 255 255 255
-1501.0416666666665 -701.25 2750.0 255 255 255
-1489.5833333333333 -701.25 2750.0 255 255 255
-1478.125 -701.25 2750.0 255 255 255
-1466.6666666666667 -701.25 2750.0 255 255 255
-1455.2083333333333 -701.25 2750.0 255 255 255
-1443.75 -701.25 2750.0 255 255 255
-1432.2916666666667 -701.25 2750.0 255 255 255
-1446.6666666666667 -714.0 2800.0 255 255 255
-1434.9999999999998 -714.0 2800.0 255 255 255
-1450.2749999999999 -727.515 2853.0 255 255 255
-1494.35 -755.82 2964.0 255 255 255
-1511.0 -770.61 3022.0 255 255 255
-1528.6541666666667 -786.165 3083.0 255 255 255
-1515.8083333333332 -786.165 3083.0 255 255 255
-1502.9624999999999 -786.165 3083.0 255 255 255
-1490.1166666666668 -786.165 3083.0 255 255 255
-1477.2708333333335 -786.165 3083.0 255 255 255
-1494.8249999999998 -802.485 3147.0 255 255 255
-1481.7124999999999 -802.485 3147.0 255 255 255
-1499.4 -819.315 3213.0 255 255 255
-1517.9250000000002 -836.91 3282.0 255 255 255
-1504.25 -836.91 3282.0 255 255 255
-1490.575 -836.91 3282.0 255 255 255
-1476.9 -836.91 3282.0 255 255 255
-1495.325 -855.27 3354.0 255 255 255
-1481.35 -855.27 3354.0 255 255 255
-1500.625 -874.65 3430.0 255 255 255
-1520.5666666666666 -894.795 3509.0 255 255 255
-1541.1374999999998 -915.705 3591.0 255 255 255
-1563.1499999999999 -937.89 3678.0 255 255 255
-1586.1208333333334 -961.095 3769.0 255 255 255
-1570.4166666666667 -961.095 3769.0 255 255 255
-1593.8999999999999 -985.32 3864.0 255 255 255
-1577.8 -985.32 3864.0 255 255 255
-1602.1166666666668 -1010.82 3964.0 255 255 255
-1585.6000000000001 -1010.82 3964.0 255 255 255
-1569.0833333333333 -1010.82 3964.0 255 255 255
-1466.7666666666667 -557.0 2228.0 255 255 255
-1436.55 -549.0 2196.0 255 255 255
-1448.2 -557.0 2228.0 255 255 255
-1438.9166666666667 -557.0 2228.0 255 255 255
-1429.6333333333334 -557.0 2228.0 255 255 255
-1441.3874999999998 -565.25 2261.0 255 255 255
-1453.5 -573.75 2295.0 255 255 255
-1443.9375 -573.75 2295.0 255 255 255
-1434.375 -573.75 2295.0 255 255 255
-1424.8125 -573.75 2295.0 255 255 255
-1415.25 -573.75 2295.0 255 255 255
-1405.6875 -573.75 2295.0 255 255 255
-1417.4166666666665 -582.5 2330.0 255 255 255
-1407.7083333333333 -582.5 2330.0 255 255 255
-1398.0 -582.5 2330.0 255 255 255
-1409.7416666666666 -591.5 2366.0 255 255 255
-1421.775 -600.75 2403.0 255 255 255
-1434.675 -610.5 2442.0 255 255 255
-1424.5 -610.5 2442.0 255 255 255
-1437.4916666666668 -620.5 2482.0 255 255 255
-1474.8749999999998 -641.25 2565.0 255 255 255
-1489.3041666666666 -652.25 2609.0 255 255 255
-1478.4333333333334 -652.25 2609.0 255 255 255
-1467.5625 -652.25 2609.0 255 255 255
-1481.8166666666666 -663.5 2654.0 255 255 255
-1496.8041666666668 -675.25 2701.0 255 255 255
-1512.5000000000002 -687.5 2750.0 255 255 255
-1501.0416666666665 -687.5 2750.0 255 255 255
-1489.5833333333333 -687.5 2750.0 255 255 255
-1478.125 -687.5 2750.0 255 255 255
-1466.6666666666667 -687.5 2750.0 255 255 255
-1455.2083333333333 -687.5 2750.0 255 255 255
-1443.75 -687.5 2750.0 255 255 255
-1432.2916666666667 -687.5 2750.0 255 255 255
-1446.6666666666667 -700.0 2800.0 255 255 255
-1434.9999999999998 -700.0 2800.0 255 255 255
-1477.725 -726.75 2907.0 255 255 255
-1523.5916666666667 -755.5 3022.0 255 255 255
-1511.0 -755.5 3022.0 255 255 255
-1528.6541666666667 -770.75 3083.0 255 255 255
-1515.8083333333332 -770.75 3083.0 255 255 255
-1502.9624999999999 -770.75 3083.0 255 255 255
-1490.1166666666668 -770.75 3083.0 255 255 255
-1507.9375 -786.75 3147.0 255 255 255
-1494.8249999999998 -786.75 3147.0 255 255 255
-1512.7875 -803.25 3213.0 255 255 255
-1531.6000000000001 -820.5 3282.0 255 255 255
-1517.9250000000002 -820.5 3282.0 255 255 255
-1504.25 -820.5 3282.0 255 255 255
-1490.575 -820.5 3282.0 255 255 255
-1509.3 -838.5 3354.0 255 255 255
-1495.325 -838.5 3354.0 255 255 255
-1514.9166666666665 -857.5 3430.0 255 255 255
-1500.625 -857.5 3430.0 255 255 255
-1520.5666666666666 -877.25 3509.0 255 255 255
-1541.1374999999998 -897.75 3591.0 255 255 255
-1563.1499999999999 -919.5 3678.0 255 255 255
-1586.1208333333334 -942.25 3769.0 255 255 255
-1570.4166666666667 -942.25 3769.0 255 255 255
-1554.7124999999999 -942.25 3769.0 255 255 255
-1577.8 -966.0 3864.0 255 255 255
-1561.7 -966.0 3864.0 255 255 255
-1545.6000000000001 -966.0 3864.0 255 255 255
-1529.5 -966.0 3864.0 255 255 255
-1513.4 -966.0 3864.0 255 255 255
-1510.875 -562.275 2295.0 255 255 255
-1479.0708333333334 -553.9449999999999 2261.0 255 255 255
-1491.75 -562.275 2295.0 255 255 255
-1460.2291666666667 -553.9449999999999 2261.0 255 255 255
-1450.8083333333334 -553.9449999999999 2261.0 255 255 255
-1463.0625 -562.275 2295.0 255 255 255
-1453.5 -562.275 2295.0 255 255 255
-1443.9375 -562.275 2295.0 255 255 255
-1434.375 -562.275 2295.0 255 255 255
-1424.8125 -562.275 2295.0 255 255 255
-1415.25 -562.275 2295.0 255 255 255
-1427.125 -570.85 2330.0 255 255 255
-1417.4166666666665 -570.85 2330.0 255 255 255
-1407.7083333333333 -570.85 2330.0 255 255 255
-1398.0 -570.85 2330.0 255 255 255
-1409.7416666666666 -579.67 2366.0 255 255 255
-1421.775 -588.735 2403.0 255 255 255
-1434.675 -598.29 2442.0 255 255 255
-1424.5 -598.29 2442.0 255 255 255
-1437.4916666666668 -608.09 2482.0 255 255 255
-1474.8749999999998 -628.425 2565.0 255 255 255
-1489.3041666666666 -639.205 2609.0 255 255 255
-1478.4333333333334 -639.205 2609.0 255 255 255
-1467.5625 -639.205 2609.0 255 255 255
-1481.8166666666666 -650.23 2654.0 255 255 255
-1496.8041666666668 -661.745 2701.0 255 255 255
-1512.5000000000002 -673.75 2750.0 255 255 255
-1501.0416666666665 -673.75 2750.0 255 255 255
-1489.5833333333333 -673.75 2750.0 255 255 255
-1478.125 -673.75 2750.0 255 255 255
-1466.6666666666667 -673.75 2750.0 255 255 255
-1455.2083333333333 -673.75 2750.0 255 255 255
-1443.75 -673.75 2750.0 255 255 255
-1432.2916666666667 -673.75 2750.0 255 255 255
-1446.6666666666667 -686.0 2800.0 255 255 255
-1462.1625 -698.985 2853.0 255 255 255
-1477.725 -712.215 2907.0 255 255 255
-1523.5916666666667 -740.39 3022.0 255 255 255
-1511.0 -740.39 3022.0 255 255 255
-1528.6541666666667 -755.335 3083.0 255 255 255
-1515.8083333333332 -755.335 3083.0 255 255 255
-1502.9624999999999 -755.335 3083.0 255 255 255
-1490.1166666666668 -755.335 3083.0 255 255 255
-1507.9375 -771.015 3147.0 255 255 255
-1526.175 -787.185 3213.0 255 255 255
-1512.7875 -787.185 3213.0 255 255 255
-1531.6000000000001 -804.09 3282.0 255 255 255
-1517.9250000000002 -804.09 3282.0 255 255 255
-1537.25 -821.73 3354.0 255 255 255
-1523.275 -821.73 3354.0 255 255 255
-1509.3 -821.73 3354.0 255 255 255
-1529.2083333333335 -840.35 3430.0 255 255 255
-1514.9166666666665 -840.35 3430.0 255 255 255
-1535.1875 -859.705 3509.0 255 255 255
-1556.1000000000001 -879.795 3591.0 255 255 255
-1541.1374999999998 -879.795 3591.0 255 255 255
-1526.175 -879.795 3591.0 255 255 255
-1547.825 -901.11 3678.0 255 255 255
-1570.4166666666667 -923.405 3769.0 255 255 255
-1554.7124999999999 -923.405 3769.0 255 255 255
-1539.0083333333332 -923.405 3769.0 255 255 255
-1561.7 -946.68 3864.0 255 255 255
-1545.6000000000001 -946.68 3864.0 255 255 255
-1529.5 -946.68 3864.0 255 255 255
-1513.4 -946.68 3864.0 255 255 255
-1536.05 -971.18 3964.0 255 255 255
-1510.875 -550.8 2295.0 255 255 255
-1501.3125 -550.8 2295.0 255 255 255
-1491.75 -550.8 2295.0 255 255 255
-1482.1875 -550.8 2295.0 255 255 255
-1472.6250000000002 -550.8 2295.0 255 255 255
-1463.0625 -550.8 2295.0 255 255 255
-1453.5 -550.8 2295.0 255 255 255
-1443.9375 -550.8 2295.0 255 255 255
-1434.375 -550.8 2295.0 255 255 255
-1446.5416666666667 -559.1999999999999 2330.0 255 255 255
-1436.8333333333335 -559.1999999999999 2330.0 255 255 255
-1427.125 -559.1999999999999 2330.0 255 255 255
-1439.3166666666666 -567.84 2366.0 255 255 255
-1429.4583333333333 -567.84 2366.0 255 255 255
-1419.6 -567.84 2366.0 255 255 255
-1409.7416666666666 -567.84 2366.0 255 255 255
-1421.775 -576.72 2403.0 255 255 255
-1434.675 -586.0799999999999 2442.0 255 255 255
-1424.5 -586.0799999999999 2442.0 255 255 255
-1437.4916666666668 -595.68 2482.0 255 255 255
-1474.8749999999998 -615.6 2565.0 255 255 255
-1489.3041666666666 -626.16 2609.0 255 255 255
-1478.4333333333334 -626.16 2609.0 255 255 255
-1492.875 -636.9599999999999 2654.0 255 255 255
-1481.8166666666666 -636.9599999999999 2654.0 255 255 255
-1496.8041666666668 -648.24 2701.0 255 255 255
-1512.5000000000002 -660.0 2750.0 255 255 255
-1501.0416666666665 -660.0 2750.0 255 255 255
-1489.5833333333333 -660.0 2750.0 255 255 255
-1478.125 -660.0 2750.0 255 255 255
-1466.6666666666667 -660.0 2750.0 255 255 255
-1455.2083333333333 -660.0 2750.0 255 255 255
-1443.75 -660.0 2750.0 255 255 255
-1458.3333333333335 -672.0 2800.0 255 255 255
-1446.6666666666667 -672.0 2800.0 255 255 255
-1462.1625 -684.72 2853.0 255 255 255
-1477.725 -697.68 2907.0 255 255 255
-1523.5916666666667 -725.28 3022.0 255 255 255
-1511.0 -725.28 3022.0 255 255 255
-1528.6541666666667 -739.92 3083.0 255 255 255
-1515.8083333333332 -739.92 3083.0 255 255 255
-1502.9624999999999 -739.92 3083.0 255 255 255
-1490.1166666666668 -739.92 3083.0 255 255 255
-1507.9375 -755.28 3147.0 255 255 255
-1526.175 -771.12 3213.0 255 255 255
-1545.2749999999999 -787.68 3282.0 255 255 255
-1531.6000000000001 -787.68 3282.0 255 255 255
-1551.2250000000001 -804.9599999999999 3354.0 255 255 255
-1537.25 -804.9599999999999 3354.0 255 255 255
-1523.275 -804.9599999999999 3354.0 255 255 255
-1543.5 -823.1999999999999 3430.0 255 255 255
-1529.2083333333335 -823.1999999999999 3430.0 255 255 255
-1549.8083333333334 -842.16 3509.0 255 255 255
-1535.1875 -842.16 3509.0 255 255 255
-1556.1000000000001 -861.8399999999999 3591.0 255 255 255
-1541.1374999999998 -861.8399999999999 3591.0 255 255 255
-1526.175 -861.8399999999999 3591.0 255 255 255
-1511.2125 -861.8399999999999 3591.0 255 255 255
-1532.5 -882.7199999999999 3678.0 255 255 255
-1517.175 -882.7199999999999 3678.0 255 255 255
-1539.0083333333332 -904.56 3769.0 255 255 255
-1523.3041666666668 -904.56 3769.0 255 255 255
-1507.6000000000001 -904.56 3769.0 255 255 255
-1529.5 -927.36 3864.0 255 255 255
-1513.4 -927.36 3864.0 255 255 255
-1536.05 -951.36 3964.0 255 255 255
-1510.875 -539.3249999999999 2295.0 255 255 255
-1501.3125 -539.3249999999999 2295.0 255 255 255
-1491.75 -539.3249999999999 2295.0 255 255 255
-1482.1875 -539.3249999999999 2295.0 255 255 255
-1472.6250000000002 -539.3249999999999 2295.0 255 255 255
-1463.0625 -539.3249999999999 2295.0 255 255 255
-1453.5 -539.3249999999999 2295.0 255 255 255
-1443.9375 -539.3249999999999 2295.0 255 255 255
-1456.25 -547.55 2330.0 255 255 255
-1446.5416666666667 -547.55 2330.0 255 255 255
-1436.8333333333335 -547.55 2330.0 255 255 255
-1449.1750000000002 -556.01 2366.0 255 255 255
-1439.3166666666666 -556.01 2366.0 255 255 255
-1429.4583333333333 -556.01 2366.0 255 255 255
-1419.6 -556.01 2366.0 255 255 255
-1431.7875 -564.7049999999999 2403.0 255 255 255
-1421.775 -564.7049999999999 2403.0 255 255 255
-1434.675 -573.87 2442.0 255 255 255
-1424.5 -573.87 2442.0 255 255 255
-1461.2375000000002 -592.905 2523.0 255 255 255
-1474.8749999999998 -602.775 2565.0 255 255 255
-1489.3041666666666 -613.115 2609.0 255 255 255
-1478.4333333333334 -613.115 2609.0 255 255 255
-1492.875 -623.6899999999999 2654.0 255 255 255
-1481.8166666666666 -623.6899999999999 2654.0 255 255 255
-1496.8041666666668 -634.735 2701.0 255 255 255
-1512.5000000000002 -646.25 2750.0 255 255 255
-1528.3333333333333 -658.0 2800.0 255 255 255
-1516.6666666666665 -658.0 2800.0 255 255 255
-1505.0 -658.0 2800.0 255 255 255
-1493.3333333333333 -658.0 2800.0 255 255 255
-1481.6666666666667 -658.0 2800.0 255 255 255
-1470.0 -658.0 2800.0 255 255 255
-1458.3333333333335 -658.0 2800.0 255 255 255
-1474.0500000000002 -670.4549999999999 2853.0 255 255 255
-1462.1625 -670.4549999999999 2853.0 255 255 255
-1477.725 -683.145 2907.0 255 255 255
-1523.5916666666667 -710.17 3022.0 255 255 255
-1511.0 -710.17 3022.0 255 255 255
-1498.4083333333333 -710.17 3022.0 255 255 255
-1485.8166666666666 -710.17 3022.0 255 255 255
-1502.9624999999999 -724.505 3083.0 255 255 255
-1490.1166666666668 -724.505 3083.0 255 255 255
-1507.9375 -739.545 3147.0 255 255 255
-1526.175 -755.055 3213.0 255 255 255
-1545.2749999999999 -771.27 3282.0 255 255 255
-1531.6000000000001 -771.27 3282.0 255 255 255
-1551.2250000000001 -788.1899999999999 3354.0 255 255 255
-1537.25 -788.1899999999999 3354.0 255 255 255
-1523.275 -788.1899999999999 3354.0 255 255 255
-1543.5 -806.05 3430.0 255 255 255
-1564.4291666666668 -824.615 3509.0 255 255 255
-1549.8083333333334 -824.615 3509.0 255 255 255
-1535.1875 -824.615 3509.0 255 255 255
-1556.1000000000001 -843.885 3591.0 255 255 255
-1541.1374999999998 -843.885 3591.0 255 255 255
-1526.175 -843.885 3591.0 255 255 255
-1511.2125 -843.885 3591.0 255 255 255
-1496.25 -843.885 3591.0 255 255 255
-1517.175 -864.3299999999999 3678.0 255 255 255
-1501.85 -864.3299999999999 3678.0 255 255 255
-1523.3041666666668 -885.7149999999999 3769.0 255 255 255
-1507.6000000000001 -885.7149999999999 3769.0 255 255 255
-1529.5 -908.04 3864.0 255 255 255
-1513.4 -908.04 3864.0 255 255 255
-1536.05 -931.54 3964.0 255 255 255
-1510.875 -527.85 2295.0 255 255 255
-1501.3125 -527.85 2295.0 255 255 255
-1491.75 -527.85 2295.0 255 255 255
-1482.1875 -527.85 2295.0 255 255 255
-1472.6250000000002 -527.85 2295.0 255 255 255
-1463.0625 -527.85 2295.0 255 255 255
-1453.5 -527.85 2295.0 255 255 255
-1443.9375 -527.85 2295.0 255 255 255
-1456.25 -535.9 2330.0 255 255 255
-1446.5416666666667 -535.9 2330.0 255 255 255
-1459.0333333333333 -544.1800000000001 2366.0 255 255 255
-1449.1750000000002 -544.1800000000001 2366.0 255 255 255
-1439.3166666666666 -544.1800000000001 2366.0 255 255 255
-1429.4583333333333 -544.1800000000001 2366.0 255 255 255
-1419.6 -544.1800000000001 2366.0 255 255 255
-1431.7875 -552.69 2403.0 255 255 255
-1421.775 -552.69 2403.0 255 255 255
-1434.675 -561.66 2442.0 255 255 255
-1424.5 -561.66 2442.0 255 255 255
-1461.2375000000002 -580.2900000000001 2523.0 255 255 255
-1474.8749999999998 -589.95 2565.0 255 255 255
-1489.3041666666666 -600.07 2609.0 255 255 255
-1478.4333333333334 -600.07 2609.0 255 255 255
-1467.5625 -600.07 2609.0 255 255 255
-1481.8166666666666 -610.4200000000001 2654.0 255 255 255
-1496.8041666666668 -621.23 2701.0 255 255 255
-1512.5000000000002 -632.5 2750.0 255 255 255
-1528.3333333333333 -644.0 2800.0 255 255 255
-1516.6666666666665 -644.0 2800.0 255 255 255
-1505.0 -644.0 2800.0 255 255 255
-1493.3333333333333 -644.0 2800.0 255 255 255
-1481.6666666666667 -644.0 2800.0 255 255 255
-1470.0 -644.0 2800.0 255 255 255
-1458.3333333333335 -644.0 2800.0 255 255 255
-1474.0500000000002 -656.19 2853.0 255 255 255
-1462.1625 -656.19 2853.0 255 255 255
-1477.725 -668.61 2907.0 255 255 255
-1523.5916666666667 -695.0600000000001 3022.0 255 255 255
-1511.0 -695.0600000000001 3022.0 255 255 255
-1498.4083333333333 -695.0600000000001 3022.0 255 255 255
-1485.8166666666666 -695.0600000000001 3022.0 255 255 255
-1473.225 -695.0600000000001 3022.0 255 255 255
-1490.1166666666668 -709.09 3083.0 255 255 255
-1477.2708333333335 -709.09 3083.0 255 255 255
-1526.175 -738.99 3213.0 255 255 255
-1545.2749999999999 -754.86 3282.0 255 255 255
-1531.6000000000001 -754.86 3282.0 255 255 255
-1551.2250000000001 -771.4200000000001 3354.0 255 255 255
-1537.25 -771.4200000000001 3354.0 255 255 255
-1557.7916666666667 -788.9000000000001 3430.0 255 255 255
-1543.5 -788.9000000000001 3430.0 255 255 255
-1564.4291666666668 -807.07 3509.0 255 255 255
-1549.8083333333334 -807.07 3509.0 255 255 255
-1535.1875 -807.07 3509.0 255 255 255
-1556.1000000000001 -825.9300000000001 3591.0 255 255 255
-1505.9458333333332 -807.07 3509.0 255 255 255
-1491.325 -807.07 3509.0 255 255 255
-1476.7041666666667 -807.07 3509.0 255 255 255
-1496.25 -825.9300000000001 3591.0 255 255 255
-1517.175 -845.94 3678.0 255 255 255
-1501.85 -845.94 3678.0 255 255 255
-1486.525 -845.94 3678.0 255 255 255
-1507.6000000000001 -866.87 3769.0 255 255 255
-1529.5 -888.72 3864.0 255 255 255
-1552.5666666666666 -911.72 3964.0 255 255 255
-1510.875 -516.375 2295.0 255 255 255
-1501.3125 -516.375 2295.0 255 255 255
-1491.75 -516.375 2295.0 255 255 255
-1482.1875 -516.375 2295.0 255 255 255
-1450.8083333333334 -508.725 2261.0 255 255 255
-1441.3874999999998 -508.725 2261.0 255 255 255
-1453.5 -516.375 2295.0 255 255 255
-1443.9375 -516.375 2295.0 255 255 255
-1456.25 -524.25 2330.0 255 255 255
-1446.5416666666667 -524.25 2330.0 255 255 255
-1459.0333333333333 -532.35 2366.0 255 255 255
-1449.1750000000002 -532.35 2366.0 255 255 255
-1439.3166666666666 -532.35 2366.0 255 255 255
-1429.4583333333333 -532.35 2366.0 255 255 255
-1419.6 -532.35 2366.0 255 255 255
-1431.7875 -540.6750000000001 2403.0 255 255 255
-1421.775 -540.6750000000001 2403.0 255 255 255
-1434.675 -549.45 2442.0 255 255 255
-1424.5 -549.45 2442.0 255 255 255
-1461.2375000000002 -567.6750000000001 2523.0 255 255 255
-1474.8749999999998 -577.125 2565.0 255 255 255
-1489.3041666666666 -587.025 2609.0 255 255 255
-1478.4333333333334 -587.025 2609.0 255 255 255
-1467.5625 -587.025 2609.0 255 255 255
-1481.8166666666666 -597.15 2654.0 255 255 255
-1496.8041666666668 -607.725 2701.0 255 255 255
-1512.5000000000002 -618.75 2750.0 255 255 255
-1501.0416666666665 -618.75 2750.0 255 255 255
-1516.6666666666665 -630.0 2800.0 255 255 255
-1505.0 -630.0 2800.0 255 255 255
-1493.3333333333333 -630.0 2800.0 255 255 255
-1481.6666666666667 -630.0 2800.0 255 255 255
-1470.0 -630.0 2800.0 255 255 255
-1458.3333333333335 -630.0 2800.0 255 255 255
-1474.0500000000002 -641.9250000000001 2853.0 255 255 255
-1462.1625 -641.9250000000001 2853.0 255 255 255
-1477.725 -654.075 2907.0 255 255 255
-1494.35 -666.9 2964.0 255 255 255
-1511.0 -679.95 3022.0 255 255 255
-1469.65 -666.9 2964.0 255 255 255
-1485.8166666666666 -679.95 3022.0 255 255 255
-1473.225 -679.95 3022.0 255 255 255
-1460.6333333333334 -679.95 3022.0 255 255 255
-1477.2708333333335 -693.6750000000001 3083.0 255 255 255
-1494.8249999999998 -708.075 3147.0 255 255 255
-1545.2749999999999 -738.45 3282.0 255 255 255
-1531.6000000000001 -738.45 3282.0 255 255 255
-1551.2250000000001 -754.65 3354.0 255 255 255
-1537.25 -754.65 3354.0 255 255 255
-1557.7916666666667 -771.75 3430.0 255 255 255
-1579.05 -789.525 3509.0 255 255 255
-1564.4291666666668 -789.525 3509.0 255 255 255
-1549.8083333333334 -789.525 3509.0 255 255 255
-1535.1875 -789.525 3509.0 255 255 255
-1556.1000000000001 -807.975 3591.0 255 255 255
-1505.9458333333332 -789.525 3509.0 255 255 255
-1491.325 -789.525 3509.0 255 255 255
-1476.7041666666667 -789.525 3509.0 255 255 255
-1496.25 -807.975 3591.0 255 255 255
-1481.2875 -807.975 3591.0 255 255 255
-1501.85 -827.5500000000001 3678.0 255 255 255
-1486.525 -827.5500000000001 3678.0 255 255 255
-1507.6000000000001 -848.025 3769.0 255 255 255
-1529.5 -869.4 3864.0 255 255 255
-1552.5666666666666 -891.9 3964.0 255 255 255
-1536.05 -891.9 3964.0 255 255 255
-1488.4916666666666 -497.42 2261.0 255 255 255
-1436.55 -483.12 2196.0 255 255 255
-1448.2 -490.16 2228.0 255 255 255
-1438.9166666666667 -490.16 2228.0 255 255 255
-1450.8083333333334 -497.42 2261.0 255 255 255
-1441.3874999999998 -497.42 2261.0 255 255 255
-1453.5 -504.9 2295.0 255 255 255
-1443.9375 -504.9 2295.0 255 255 255
-1456.25 -512.6 2330.0 255 255 255
-1446.5416666666667 -512.6 2330.0 255 255 255
-1459.0333333333333 -520.52 2366.0 255 255 255
-1449.1750000000002 -520.52 2366.0 255 255 255
-1439.3166666666666 -520.52 2366.0 255 255 255
-1451.8125 -528.66 2403.0 255 255 255
-1441.8 -528.66 2403.0 255 255 255
-1431.7875 -528.66 2403.0 255 255 255
-1421.775 -528.66 2403.0 255 255 255
-1434.675 -537.24 2442.0 255 255 255
-1447.8333333333335 -546.04 2482.0 255 255 255
-1461.2375000000002 -555.0600000000001 2523.0 255 255 255
-1474.8749999999998 -564.3 2565.0 255 255 255
-1489.3041666666666 -573.98 2609.0 255 255 255
-1478.4333333333334 -573.98 2609.0 255 255 255
-1467.5625 -573.98 2609.0 255 255 255
-1481.8166666666666 -583.88 2654.0 255 255 255
-1496.8041666666668 -594.22 2701.0 255 255 255
-1485.5500000000002 -594.22 2701.0 255 255 255
-1501.0416666666665 -605.0 2750.0 255 255 255
-1489.5833333333333 -605.0 2750.0 255 255 255
-1505.0 -616.0 2800.0 255 255 255
-1493.3333333333333 -616.0 2800.0 255 255 255
-1481.6666666666667 -616.0 2800.0 255 255 255
-1470.0 -616.0 2800.0 255 255 255
-1458.3333333333335 -616.0 2800.0 255 255 255
-1446.6666666666667 -616.0 2800.0 255 255 255
-1462.1625 -627.66 2853.0 255 255 255
-1477.725 -639.54 2907.0 255 255 255
-1494.35 -652.08 2964.0 255 255 255
-1482.0 -652.08 2964.0 255 255 255
-1469.65 -652.08 2964.0 255 255 255
-1457.3 -652.08 2964.0 255 255 255
-1473.225 -664.84 3022.0 255 255 255
-1460.6333333333334 -664.84 3022.0 255 255 255
-1477.2708333333335 -678.26 3083.0 255 255 255
-1464.425 -678.26 3083.0 255 255 255
-1512.7875 -706.86 3213.0 255 255 255
-1531.6000000000001 -722.04 3282.0 255 255 255
-1551.2250000000001 -737.88 3354.0 255 255 255
-1537.25 -737.88 3354.0 255 255 255
-1557.7916666666667 -754.6 3430.0 255 255 255
-1579.05 -771.98 3509.0 255 255 255
-1564.4291666666668 -771.98 3509.0 255 255 255
-1549.8083333333334 -771.98 3509.0 255 255 255
-1535.1875 -771.98 3509.0 255 255 255
-1556.1000000000001 -790.02 3591.0 255 255 255
-1541.1374999999998 -790.02 3591.0 255 255 255
-1491.325 -771.98 3509.0 255 255 255
-1476.7041666666667 -771.98 3509.0 255 255 255
-1496.25 -790.02 3591.0 255 255 255
-1517.175 -809.16 3678.0 255 255 255
-1501.85 -809.16 3678.0 255 255 255
-1486.525 -809.16 3678.0 255 255 255
-1507.6000000000001 -829.18 3769.0 255 255 255
-1529.5 -850.08 3864.0 255 255 255
-1552.5666666666666 -872.08 3964.0 255 255 255
-1536.05 -872.08 3964.0 255 255 255
-1519.5333333333335 -872.08 3964.0 255 255 255
-1445.7 -472.14 2196.0 255 255 255
-1436.55 -472.14 2196.0 255 255 255
-1427.4 -472.14 2196.0 255 255 255
-1438.9166666666667 -479.02 2228.0 255 255 255
-1429.6333333333334 -479.02 2228.0 255 255 255
-1441.3874999999998 -486.115 2261.0 255 255 255
-1453.5 -493.425 2295.0 255 255 255
-1443.9375 -493.425 2295.0 255 255 255
-1434.375 -493.425 2295.0 255 255 255
-1446.5416666666667 -500.95 2330.0 255 255 255
-1436.8333333333335 -500.95 2330.0 255 255 255
-1449.1750000000002 -508.69 2366.0 255 255 255
-1439.3166666666666 -508.69 2366.0 255 255 255
-1451.8125 -516.645 2403.0 255 255 255
-1441.8 -516.645 2403.0 255 255 255
-1431.7875 -516.645 2403.0 255 255 255
-1444.85 -525.03 2442.0 255 255 255
-1434.675 -525.03 2442.0 255 255 255
-1447.8333333333335 -533.63 2482.0 255 255 255
-1485.5625000000002 -551.475 2565.0 255 255 255
-1500.175 -560.935 2609.0 255 255 255
-1489.3041666666666 -560.935 2609.0 255 255 255
-1478.4333333333334 -560.935 2609.0 255 255 255
-1467.5625 -560.935 2609.0 255 255 255
-1481.8166666666666 -570.61 2654.0 255 255 255
-1470.7583333333334 -570.61 2654.0 255 255 255
-1485.5500000000002 -580.715 2701.0 255 255 255
-1501.0416666666665 -591.25 2750.0 255 255 255
-1489.5833333333333 -591.25 2750.0 255 255 255
-1505.0 -602.0 2800.0 255 255 255
-1493.3333333333333 -602.0 2800.0 255 255 255
-1481.6666666666667 -602.0 2800.0 255 255 255
-1470.0 -602.0 2800.0 255 255 255
-1458.3333333333335 -602.0 2800.0 255 255 255
-1446.6666666666667 -602.0 2800.0 255 255 255
-1462.1625 -613.395 2853.0 255 255 255
-1477.725 -625.005 2907.0 255 255 255
-1494.35 -637.26 2964.0 255 255 255
-1482.0 -637.26 2964.0 255 255 255
-1469.65 -637.26 2964.0 255 255 255
-1457.3 -637.26 2964.0 255 255 255
-1473.225 -649.73 3022.0 255 255 255
-1460.6333333333334 -649.73 3022.0 255 255 255
-1477.2708333333335 -662.845 3083.0 255 255 255
-1464.425 -662.845 3083.0 255 255 255
-1512.7875 -690.795 3213.0 255 255 255
-1531.6000000000001 -705.63 3282.0 255 255 255
-1551.2250000000001 -721.11 3354.0 255 255 255
-1537.25 -721.11 3354.0 255 255 255
-1523.275 -721.11 3354.0 255 255 255
-1543.5 -737.4499999999999 3430.0 255 255 255
-1564.4291666666668 -754.435 3509.0 255 255 255
-1549.8083333333334 -754.435 3509.0 255 255 255
-1535.1875 -754.435 3509.0 255 255 255
-1556.1000000000001 -772.0649999999999 3591.0 255 255 255
-1541.1374999999998 -772.0649999999999 3591.0 255 255 255
-1526.175 -772.0649999999999 3591.0 255 255 255
-1511.2125 -772.0649999999999 3591.0 255 255 255
-1496.25 -772.0649999999999 3591.0 255 255 255
-1517.175 -790.77 3678.0 255 255 255
-1523.3041666666668 -810.335 3769.0 255 255 255
-1545.6000000000001 -830.76 3864.0 255 255 255
-1529.5 -830.76 3864.0 255 255 255
-1513.4 -830.76 3864.0 255 255 255
-1536.05 -852.26 3964.0 255 255 255
-1519.5333333333335 -852.26 3964.0 255 255 255
-1445.7 -461.15999999999997 2196.0 255 255 255
-1436.55 -461.15999999999997 2196.0 255 255 255
-1427.4 -461.15999999999997 2196.0 255 255 255
-1418.25 -461.15999999999997 2196.0 255 255 255
-1429.6333333333334 -467.88 2228.0 255 255 255
-1441.3874999999998 -474.81 2261.0 255 255 255
-1453.5 -481.95 2295.0 255 255 255
-1443.9375 -481.95 2295.0 255 255 255
-1434.375 -481.95 2295.0 255 255 255
-1446.5416666666667 -489.29999999999995 2330.0 255 255 255
-1436.8333333333335 -489.29999999999995 2330.0 255 255 255
-1449.1750000000002 -496.85999999999996 2366.0 255 255 255
-1439.3166666666666 -496.85999999999996 2366.0 255 255 255
-1451.8125 -504.63 2403.0 255 255 255
-1441.8 -504.63 2403.0 255 255 255
-1431.7875 -504.63 2403.0 255 255 255
-1444.85 -512.8199999999999 2442.0 255 255 255
-1458.175 -521.22 2482.0 255 255 255
-1471.75 -529.8299999999999 2523.0 255 255 255
-1485.5625000000002 -538.65 2565.0 255 255 255
-1500.175 -547.89 2609.0 255 255 255
-1489.3041666666666 -547.89 2609.0 255 255 255
-1478.4333333333334 -547.89 2609.0 255 255 255
-1467.5625 -547.89 2609.0 255 255 255
-1456.6916666666666 -547.89 2609.0 255 255 255
-1470.7583333333334 -557.34 2654.0 255 255 255
-1459.7 -557.34 2654.0 255 255 255
-1474.2958333333331 -567.2099999999999 2701.0 255 255 255
-1489.5833333333333 -577.5 2750.0 255 255 255
-1505.0 -588.0 2800.0 255 255 255
-1493.3333333333333 -588.0 2800.0 255 255 255
-1481.6666666666667 -588.0 2800.0 255 255 255
-1470.0 -588.0 2800.0 255 255 255
-1458.3333333333335 -588.0 2800.0 255 255 255
-1474.0500000000002 -599.13 2853.0 255 255 255
-1462.1625 -599.13 2853.0 255 255 255
-1477.725 -610.47 2907.0 255 255 255
-1494.35 -622.4399999999999 2964.0 255 255 255
-1482.0 -622.4399999999999 2964.0 255 255 255
-1469.65 -622.4399999999999 2964.0 255 255 255
-1457.3 -622.4399999999999 2964.0 255 255 255
-1473.225 -634.62 3022.0 255 255 255
-1460.6333333333334 -634.62 3022.0 255 255 255
-1477.2708333333335 -647.43 3083.0 255 255 255
-1494.8249999999998 -660.87 3147.0 255 255 255
-1512.7875 -674.73 3213.0 255 255 255
-1531.6000000000001 -689.22 3282.0 255 255 255
-1551.2250000000001 -704.3399999999999 3354.0 255 255 255
-1537.25 -704.3399999999999 3354.0 255 255 255
-1523.275 -704.3399999999999 3354.0 255 255 255
-1543.5 -720.3 3430.0 255 255 255
-1564.4291666666668 -736.89 3509.0 255 255 255
-1549.8083333333334 -736.89 3509.0 255 255 255
-1535.1875 -736.89 3509.0 255 255 255
-1520.5666666666666 -736.89 3509.0 255 255 255
-1541.1374999999998 -754.11 3591.0 255 255 255
-1526.175 -754.11 3591.0 255 255 255
-1511.2125 -754.11 3591.0 255 255 255
-1532.5 -772.38 3678.0 255 255 255
-1517.175 -772.38 3678.0 255 255 255
-1523.3041666666668 -791.49 3769.0 255 255 255
-1545.6000000000001 -811.4399999999999 3864.0 255 255 255
-1529.5 -811.4399999999999 3864.0 255 255 255
-1552.5666666666666 -832.4399999999999 3964.0 255 255 255
-1536.05 -832.4399999999999 3964.0 255 255 255
-1519.5333333333335 -832.4399999999999 3964.0 255 255 255
-1445.7 -450.17999999999995 2196.0 255 255 255
-1436.55 -450.17999999999995 2196.0 255 255 255
-1427.4 -450.17999999999995 2196.0 255 255 255
-1418.25 -450.17999999999995 2196.0 255 255 255
-1429.6333333333334 -456.73999999999995 2228.0 255 255 255
-1441.3874999999998 -463.505 2261.0 255 255 255
-1453.5 -470.47499999999997 2295.0 255 255 255
-1443.9375 -470.47499999999997 2295.0 255 255 255
-1434.375 -470.47499999999997 2295.0 255 255 255
-1424.8125 -470.47499999999997 2295.0 255 255 255
-1436.8333333333335 -477.65 2330.0 255 255 255
-1427.125 -477.65 2330.0 255 255 255
-1439.3166666666666 -485.03 2366.0 255 255 255
-1451.8125 -492.61499999999995 2403.0 255 255 255
-1441.8 -492.61499999999995 2403.0 255 255 255
-1455.025 -500.60999999999996 2442.0 255 255 255
-1444.85 -500.60999999999996 2442.0 255 255 255
-1458.175 -508.80999999999995 2482.0 255 255 255
-1496.25 -525.8249999999999 2565.0 255 255 255
-1511.0458333333336 -534.8449999999999 2609.0 255 255 255
-1500.175 -534.8449999999999 2609.0 255 255 255
-1489.3041666666666 -534.8449999999999 2609.0 255 255 255
-1478.4333333333334 -534.8449999999999 2609.0 255 255 255
-1467.5625 -534.8449999999999 2609.0 255 255 255
-1456.6916666666666 -534.8449999999999 2609.0 255 255 255
-1470.7583333333334 -544.0699999999999 2654.0 255 255 255
-1459.7 -544.0699999999999 2654.0 255 255 255
-1474.2958333333331 -553.7049999999999 2701.0 255 255 255
-1489.5833333333333 -563.75 2750.0 255 255 255
-1505.0 -574.0 2800.0 255 255 255
-1493.3333333333333 -574.0 2800.0 255 255 255
-1481.6666666666667 -574.0 2800.0 255 255 255
-1470.0 -574.0 2800.0 255 255 255
-1485.9375 -584.865 2853.0 255 255 255
-1474.0500000000002 -584.865 2853.0 255 255 255
-1489.8374999999999 -595.935 2907.0 255 255 255
-1506.6999999999998 -607.62 2964.0 255 255 255
-1494.35 -607.62 2964.0 255 255 255
-1482.0 -607.62 2964.0 255 255 255
-1469.65 -607.62 2964.0 255 255 255
-1457.3 -607.62 2964.0 255 255 255
-1473.225 -619.51 3022.0 255 255 255
-1460.6333333333334 -619.51 3022.0 255 255 255
-1477.2708333333335 -632.015 3083.0 255 255 255
-1494.8249999999998 -645.135 3147.0 255 255 255
-1512.7875 -658.665 3213.0 255 255 255
-1531.6000000000001 -672.81 3282.0 255 255 255
-1517.9250000000002 -672.81 3282.0 255 255 255
-1537.25 -687.5699999999999 3354.0 255 255 255
-1523.275 -687.5699999999999 3354.0 255 255 255
-1543.5 -703.15 3430.0 255 255 255
-1564.4291666666668 -719.3449999999999 3509.0 255 255 255
-1549.8083333333334 -719.3449999999999 3509.0 255 255 255
-1535.1875 -719.3449999999999 3509.0 255 255 255
-1556.1000000000001 -736.155 3591.0 255 255 255
-1541.1374999999998 -736.155 3591.0 255 255 255
-1526.175 -736.155 3591.0 255 255 255
-1511.2125 -736.155 3591.0 255 255 255
-1532.5 -753.99 3678.0 255 255 255
-1517.175 -753.99 3678.0 255 255 255
-1523.3041666666668 -772.645 3769.0 255 255 255
-1545.6000000000001 -792.12 3864.0 255 255 255
-1529.5 -792.12 3864.0 255 255 255
